695.195 1037.93 72.4664
695.02 1037.86 71.5857
697.565 1039.2 76.2882
696.552 1038.45 75.8288
695.122 1037.94 72.0594
695.285 1037.81 76.5493
697.072 1038.92 76.1712
695.239 1037.91 75.9968
695.819 1038.2 75.8348
695.103 1037.68 73.7234
698.153 1039.58 76.5
699.162 1040 76.3257
696.586 1038.47 76.0224
697.126 1038.95 76.2038
698.967 1039.89 76.2887
695.201 1037.92 72.4959
696.286 1038.46 75.9242
695.283 1037.84 73.7059
695.06 1037.89 73.6315
695.242 1037.7 76.2505
695.127 1037.94 71.9194
696.812 1038.61 76.1024
696.392 1038.48 76.0597
695.29 1037.73 73.774
695.206 1037.92 73.6372
695.163 1037.94 74.6699
699.339 1040.14 76.385
696.067 1038.34 75.9021
696.253 1038.45 75.9873
696.814 1038.72 75.8758
696.766 1038.62 76.1299
697.178 1038.88 75.9456
695.237 1037.69 72.6681
699.239 1040.16 76.679
695.056 1037.89 72.6034
699.016 1040 76.5612
695.285 1037.8 74.6861
698.987 1039.9 76.4701
695.096 1037.92 72.0787
696.729 1038.58 76.1228
695.125 1037.67 73.5019
695.283 1037.83 75.2951
695.201 1037.92 73.3574
695.281 1037.87 73.8797
695.284 1037.82 76.6688
695.197 1037.93 75.8309
695.103 1037.92 72.1702
695.025 1037.79 71.7127
699.148 1039.99 76.3332
696.735 1038.56 76.1042
696.856 1038.63 75.8866
695.283 1037.85 73.7354
699.367 1040.15 76.6041
697.106 1038.78 76.1943
699.449 1040.16 76.6708
699.583 1040.25 76.3148
695.212 1037.92 75.1099
695.281 1037.88 76.6342
696.691 1038.54 75.8566
697.598 1039.22 76.2946
697.477 1039.15 76.2714
695.285 1037.81 75.0235
696.864 1038.8 76.0978
695.024 1037.8 72.5028
695.179 1037.93 74.4988
699.375 1040.17 76.0432
699.457 1040.24 76.68
696.85 1038.64 76.1458
695.198 1037.93 74.8905
695.28 1037.89 75.2644
697.223 1038.97 76.2181
699.368 1040.15 76.8542
696.62 1038.66 76.0512
695.03 1037.71 73.6098
695.198 1037.93 75.7371
696.829 1038.68 75.877
695.804 1038.19 75.8652
697.937 1039.43 76.4455
697.431 1039.09 76.2579
696.29 1038.43 76.0402
699.49 1040.14 76.6793
699.241 1040.08 76.6594
695.287 1037.77 74.8864
695.251 1037.9 75.4865
695.283 1037.85 75.9542
695.286 1037.8 74.8895
697.089 1038.79 76.1913
697.558 1039.05 76.2803
697.73 1039.31 76.4526
695.348 1037.9 75.6013
695.106 1037.92 74.0312
695.092 1037.68 71.8105
695.28 1037.89 73.6464
697.525 1039.16 76.2779
699.512 1040.22 76.7781
695.123 1037.94 71.9688
695.076 1037.9 71.8113
699.634 1040.25 76.583
695.285 1037.81 74.3267
696.803 1038.6 76.1367
696.803 1038.6 76.1367
