665.766621 1311.881111 65.158516
664.504700 1311.861442 65.898833
665.237017 1311.448626 64.438116
664.856718 1311.962196 62.749815
663.930121 1311.434395 63.716451
664.639389 1311.474826 63.085431
664.113467 1311.453923 63.269524
664.897091 1311.816600 65.773461
664.249979 1311.392226 64.381594
665.877926 1312.145975 65.739170
664.719972 1311.382910 63.527651
663.564860 1311.894567 63.711185
664.704837 1311.932853 66.035385
664.880128 1311.965766 66.101641
664.425246 1311.353482 64.184667
664.277480 1311.348253 64.216273
664.275221 1311.397399 63.616456
663.922058 1311.474697 63.387981
664.376478 1311.359048 63.967109
663.712631 1312.143373 63.887594
664.895215 1311.993992 66.171468
664.087814 1312.441030 62.739579
664.325923 1311.525700 64.970439
664.025085 1311.423428 63.518200
664.727485 1311.815147 65.667481
664.844108 1311.346579 64.148513
664.337131 1311.617032 65.254329
664.090354 1311.884389 64.811473
665.450265 1311.911005 65.819141
664.201516 1311.416378 63.583178
664.540062 1311.373788 63.652271
665.188005 1311.821172 65.890207
664.249180 1311.463299 63.097495
664.254137 1311.394761 63.367160
664.092678 1312.217980 62.832986
664.537536 1311.393120 63.984415
664.880601 1311.939664 65.979333
665.136331 1311.466996 64.086824
664.059687 1311.947276 62.817782
665.536753 1311.869165 65.639784
663.455611 1311.998762 63.172382
664.546679 1311.382498 64.324714
665.605983 1311.920975 65.646417
664.357945 1311.938745 65.854469
664.335734 1311.392853 63.499672
663.825044 1312.301535 62.798177
664.154480 1311.368866 64.087867
664.157924 1311.431377 63.075266
665.247197 1312.419210 66.334556
664.874605 1311.411489 64.649868
665.175405 1312.720269 63.116371
665.170926 1311.392946 64.242326
664.685043 1311.361284 64.172641
663.988743 1311.428228 64.274544
664.212852 1312.236479 65.804423
664.338995 1312.309561 62.693052
664.555396 1311.403250 63.370674
664.704122 1311.308995 64.259829
664.541315 1311.418854 64.747975
664.389330 1312.516263 62.534178
664.677520 1312.049750 66.111470
663.680405 1311.888681 63.059467
664.933584 1311.875297 63.031844
665.115441 1311.921998 63.298766
664.510271 1311.343146 63.644886
665.871171 1312.207655 65.682328
664.665644 1311.345758 63.701915
664.682277 1311.374171 64.393159
664.140789 1311.870135 62.798502
663.638959 1311.777474 63.370011
663.792585 1311.530006 63.420809
664.557079 1311.420040 63.160162
665.146716 1311.857580 65.653839
664.821378 1311.375280 64.482668
663.511078 1312.084986 63.029592
664.042213 1311.394959 63.484762
664.618810 1311.912763 65.960843
664.505628 1311.854969 65.789114
665.387682 1312.021346 66.068758
664.433497 1311.324704 64.152986
665.122817 1312.495050 64.791099
665.499740 1311.844746 65.431376
664.252173 1311.371686 64.399877
664.231732 1311.372565 64.041182
664.672557 1311.380306 64.505631
664.126225 1311.978450 65.032076
664.644473 1311.402506 63.473459
665.348871 1311.852027 64.130159
664.076490 1311.353487 63.873202
664.431572 1312.064034 62.628654
663.515946 1312.105513 63.331014
665.324856 1311.879620 65.749653
664.689096 1311.894961 65.954284
664.598102 1311.751713 65.657635
664.473631 1311.351787 64.280875
664.564967 1311.401999 63.731295
664.825918 1311.375988 63.838664
664.955577 1311.391559 63.467520
663.815911 1311.493624 63.327363
664.685695 1311.424382 63.139210
